0.000000 0.000000 1816.000000
0.000000 178.390259 1811.236328
0.000000 360.329956 1811.510742
0.000000 542.539307 1788.522339
0.000000 743.167480 1794.175537
0.000000 971.543945 1817.642212
0.000000 1171.136597 1752.741577
0.000000 1367.111450 1665.842529
0.000000 1524.515869 1524.528564
0.000000 1406.873535 1154.602417
0.000000 1361.942505 910.031128
0.000000 1227.630615 656.191345
0.000000 1327.611450 549.924316
0.000000 1395.216187 423.244476
0.000000 1171.055908 232.946396
0.000000 1066.837158 105.082764
0.000000 1017.000000 0.008442
0.000000 927.513000 -91.343758
0.000000 924.882263 -183.961472
0.000000 989.479248 -300.144623
0.000000 1020.891296 -422.854584
0.000000 1054.783936 -563.779053
0.000000 999.434143 -667.783936
0.000000 857.276978 -703.531921
0.000000 655.496094 -655.479858
0.000000 556.371765 -677.922913
0.000000 430.020050 -643.551697
0.000000 354.028168 -662.317932
0.000000 263.678192 -636.549133
0.000000 197.403381 -650.716431
0.000000 125.257889 -629.662170
0.000000 61.564865 -624.975037
0.000000 0.010409 -627.000000
0.000000 -61.053967 -620.001160
0.000000 -122.505814 -615.935303
0.000000 -184.029480 -606.703491
0.000000 -246.436935 -594.983032
0.000000 -314.881683 -589.129456
0.000000 -389.998810 -583.699341
0.000000 -447.236176 -544.981506
0.000000 -475.165863 -475.185638
0.000000 -493.944977 -405.387909
0.000000 -686.783936 -458.915894
0.000000 -842.224731 -450.202728
0.000000 -1140.056519 -472.257629
0.000000 -1109.086060 -336.465698
0.000000 -1033.742798 -205.649918
0.000000 -258.747406 -25.490818
0.000000 -245.000000 -0.006072
0.000000 -229.888245 22.636106
0.000000 -266.774994 53.057594
0.000000 -310.051147 94.044067
0.000000 -1991.906494 825.011658
0.000000 -1985.234131 1061.059082
0.000000 -2026.329224 1353.868164
0.000000 -1953.443237 1603.056030
0.000000 -1835.702881 1835.595581
0.000000 -1538.458862 1874.505127
0.000000 -1282.869507 1919.824707
0.000000 -988.575867 1849.358521
0.000000 -786.474182 1898.547729
0.000000 -559.727234 1844.963257
0.000000 -370.536743 1862.499268
0.000000 -179.529526 1822.177368
200.000000 0.000000 1818.000000
200.000000 178.880341 1816.212158
200.000000 357.793793 1798.760620
200.000000 545.442139 1798.091675
200.000000 756.561340 1826.511353
200.000000 950.802612 1778.837646
200.000000 1191.137085 1782.674561
200.000000 1363.939453 1661.977417
200.000000 1439.663452 1439.675415
200.000000 1314.112671 1078.474731
200.000000 1290.436401 862.251709
200.000000 1216.165649 650.063110
200.000000 1307.286133 541.505127
200.000000 1394.259155 422.954193
200.000000 1409.386353 280.355103
200.000000 1007.126160 99.201263
200.000000 1034.000000 0.008583
200.000000 899.647766 -88.599525
200.000000 843.476929 -167.769730
200.000000 935.890442 -283.889191
200.000000 1077.248169 -446.197662
200.000000 1051.256226 -561.893494
200.000000 1001.097107 -668.895020
200.000000 824.037231 -676.253418
200.000000 692.266113 -692.248962
200.000000 534.167664 -650.867798
200.000000 448.354248 -670.989929
200.000000 344.600006 -644.679626
200.000000 272.480225 -657.798218
200.000000 194.790680 -642.104004
200.000000 124.867676 -627.700623
200.000000 62.153065 -630.946106
200.000000 0.010360 -624.000000
200.000000 -61.249966 -621.991516
200.000000 -122.505814 -615.935303
200.000000 -183.158676 -603.832703
200.000000 -247.584930 -597.754700
200.000000 -317.709961 -594.421082
200.000000 -383.887726 -574.553040
200.000000 -451.042419 -549.619629
200.000000 -497.792816 -497.813538
200.000000 -502.447937 -412.366425
200.000000 -739.165771 -493.917969
200.000000 -924.242432 -494.044434
200.000000 -1142.828125 -473.405731
200.000000 -1155.975830 -350.690735
200.000000 -762.066528 -151.603409
200.000000 -352.294525 -34.706730
200.000000 -240.000000 -0.005948
200.000000 -236.854553 23.322050
200.000000 -250.101547 49.741497
200.000000 -631.585693 191.571259
200.000000 -1723.054565 713.658081
200.000000 -2020.511475 1079.913940
200.000000 -1949.001099 1302.202271
200.000000 -1965.038574 1612.571655
200.000000 -1818.024658 1817.918335
200.000000 -1602.534912 1952.577271
200.000000 -1258.978882 1884.072266
200.000000 -1031.004028 1928.730103
200.000000 -774.227356 1868.983887
200.000000 -554.791931 1828.695435
200.000000 -366.634308 1842.883667
200.000000 -179.431473 1821.182129
400.000000 0.000000 1822.000000
400.000000 179.272400 1820.192993
400.000000 358.574127 1802.683716
400.000000 549.506104 1811.488892
400.000000 736.279236 1777.545776
400.000000 957.402100 1791.184570
400.000000 1193.359375 1786.000366
400.000000 1371.552124 1671.253662
400.000000 1397.944336 1397.955933
400.000000 1254.591064 1029.626221
400.000000 1269.649658 848.362366
400.000000 1293.774536 691.546448
400.000000 1300.819092 538.826355
400.000000 1328.230469 402.924103
400.000000 1304.442505 259.479675
400.000000 1081.765015 106.553139
400.000000 1055.000000 0.008757
400.000000 938.460022 -92.421852
400.000000 918.997559 -182.790985
400.000000 983.737610 -298.402954
400.000000 1088.334839 -450.789764
400.000000 1060.075562 -566.607361
400.000000 993.613831 -663.894958
400.000000 893.608826 -733.347961
400.000000 680.245178 -680.228271
400.000000 526.554810 -641.591797
400.000000 445.020752 -666.001160
400.000000 342.242950 -640.270081
400.000000 270.949432 -654.102722
400.000000 193.048889 -636.362427
400.000000 127.013840 -638.489197
400.000000 62.153065 -630.946106
400.000000 0.010293 -620.000000
400.000000 -60.563969 -615.025208
400.000000 -122.505814 -615.935303
400.000000 -182.287872 -600.961853
400.000000 -249.115585 -601.450256
400.000000 -321.009613 -600.594543
400.000000 -384.443268 -575.384521
400.000000 -455.483063 -555.030762
400.000000 -499.914093 -499.934906
400.000000 -541.097778 -444.086914
400.000000 -631.907776 -422.247070
400.000000 -966.574158 -516.672424
400.000000 -1130.817749 -468.430573
400.000000 -1143.535645 -346.916748
400.000000 -737.546997 -146.725555
400.000000 -363.241547 -35.785187
400.000000 -235.000000 -0.005824
400.000000 -231.878616 22.832090
400.000000 -256.967072 51.106949
400.000000 -1046.901123 317.543884
400.000000 -1857.942505 769.526184
400.000000 -2020.511475 1079.913940
400.000000 -1959.810425 1309.424438
400.000000 -1978.953125 1623.990356
400.000000 -1836.410034 1836.302612
400.000000 -1579.695923 1924.749512
400.000000 -1235.088257 1848.319824
400.000000 -1025.818359 1919.029053
400.000000 -770.782959 1860.669189
400.000000 -570.178589 1879.412720
400.000000 -366.439178 1841.902954
400.000000 -179.529526 1822.177368
600.000000 0.000000 1818.000000
600.000000 178.096207 1808.250732
600.000000 359.744690 1808.568481
600.000000 552.989502 1822.972168
600.000000 741.254089 1789.556152
600.000000 967.301392 1809.704956
600.000000 1170.025513 1751.078613
600.000000 1374.724121 1675.118652
600.000000 1525.223022 1525.235718
600.000000 1327.253784 1089.259521
600.000000 1248.863037 834.472961
600.000000 1265.553101 676.461609
600.000000 1202.888062 498.261292
600.000000 1208.613159 366.637695
600.000000 1110.247314 220.850357
600.000000 1119.581909 110.278084
600.000000 1108.000000 0.009197
600.000000 985.233765 -97.028244
600.000000 957.248230 -190.399139
600.000000 1032.541748 -313.207001
600.000000 1056.922729 -437.778839
600.000000 1093.588745 -584.520081
600.000000 993.613831 -663.894958
600.000000 870.418335 -714.316406
600.000000 655.496094 -655.479858
600.000000 558.909363 -681.014893
600.000000 432.242371 -646.877502
600.000000 354.971008 -664.081787
600.000000 267.887848 -646.711731
600.000000 191.887695 -632.534668
600.000000 126.428528 -635.546875
600.000000 61.760933 -626.965393
600.000000 0.010393 -626.000000
600.000000 -61.151966 -620.996338
600.000000 -122.700882 -616.916138
600.000000 -183.448944 -604.789612
600.000000 -250.263596 -604.221924
600.000000 -312.524780 -584.719849
600.000000 -388.887695 -582.036377
600.000000 -452.945557 -551.938721
600.000000 -491.428986 -491.449432
600.000000 -535.686768 -439.646057
600.000000 -682.626648 -456.137970
600.000000 -1016.843079 -543.543152
600.000000 -1121.579102 -464.603516
600.000000 -1101.430542 -334.143250
600.000000 -1056.300781 -210.137527
600.000000 -286.612518 -28.235983
600.000000 -233.000000 -0.005775
600.000000 -232.873810 22.930082
600.000000 -273.640503 54.423050
600.000000 -305.266418 92.592773
600.000000 -1942.940430 804.730774
600.000000 -1946.429077 1040.318726
600.000000 -1973.945679 1318.868652
600.000000 -1985.137329 1629.065308
600.000000 -1829.338745 1829.231812
600.000000 -1550.512817 1889.191895
600.000000 -1301.759766 1948.094116
600.000000 -1002.247192 1874.933716
600.000000 -762.363281 1840.343994
600.000000 -564.952942 1862.187988
600.000000 -364.097717 1830.133545
600.000000 -180.706131 1834.119507
800.000000 0.000000 1822.000000
800.000000 179.566452 1823.178467
800.000000 359.744690 1808.568481
800.000000 552.118652 1820.101318
800.000000 739.340698 1784.936768
800.000000 966.830017 1808.822998
800.000000 1165.580933 1744.426880
800.000000 1379.164917 1680.529785
800.000000 1348.447021 1348.458252
800.000000 1364.358154 1119.710571
800.000000 1313.717407 877.807800
800.000000 1308.767090 699.560303
800.000000 1171.476196 485.249847
800.000000 1166.507935 353.864899
800.000000 1123.978271 223.581726
800.000000 1215.119629 119.688484
800.000000 1217.000000 0.010102
800.000000 1095.699341 -107.907166
800.000000 1048.461426 -208.541687
800.000000 1006.704224 -305.369568
800.000000 1105.888550 -458.060547
800.000000 1080.359863 -577.449280
800.000000 1001.097107 -668.895020
800.000000 886.651672 -727.638489
800.000000 659.738831 -659.722473
800.000000 564.619019 -687.971924
800.000000 435.575867 -651.866272
800.000000 340.828735 -637.624329
800.000000 269.801331 -651.331116
800.000000 192.177994 -633.491638
800.000000 127.599159 -641.431580
800.000000 61.760933 -626.965393
800.000000 0.010393 -626.000000
800.000000 -61.249966 -621.991516
800.000000 -122.895958 -617.896912
800.000000 -183.158676 -603.832703
800.000000 -250.263596 -604.221924
800.000000 -312.053406 -583.837891
800.000000 -388.332153 -581.204895
800.000000 -451.676819 -550.392639
800.000000 -492.843170 -492.863678
800.000000 -548.054749 -449.796600
800.000000 -654.357117 -437.247955
800.000000 -1006.260132 -537.886169
800.000000 -1112.340332 -460.776489
800.000000 -1110.042969 -336.756012
800.000000 -630.641907 -125.458153
800.000000 -316.467987 -31.177231
800.000000 -232.000000 -0.005750
800.000000 -230.883438 22.734098
800.000000 -261.871033 52.082272
800.000000 -295.696930 89.690178
800.000000 -1901.365356 787.511169
800.000000 -2022.275391 1080.856689
800.000000 -1958.147461 1308.313354
800.000000 -1980.499146 1625.259033
800.000000 -1820.146118 1820.039673
800.000000 -1561.297852 1902.332764
800.000000 -1308.426880 1958.071533
800.000000 -1011.204224 1891.689941
800.000000 -763.894165 1844.039551
800.000000 -568.727051 1874.628174
800.000000 -364.487946 1832.095093
800.000000 -181.490524 1842.080933
1000.000000 0.000000 1818.000000
1000.000000 178.684311 1814.221802
1000.000000 360.720123 1813.472412
1000.000000 542.829590 1789.479248
1000.000000 746.228943 1801.566650
1000.000000 973.900940 1822.051880
1000.000000 1173.914429 1756.898926
1000.000000 1384.874390 1687.486938
1000.000000 1515.323486 1515.336182
1000.000000 1331.118896 1092.431519
1000.000000 1376.908936 920.031494
1000.000000 1284.955322 686.832458
1000.000000 1148.379272 475.682617
1000.000000 1146.412231 347.768799
1000.000000 1110.247314 220.850357
1000.000000 1122.567505 110.572159
1000.000000 1139.000000 0.009455
1000.000000 1053.901489 -103.790817
1000.000000 1019.037842 -202.689255
1000.000000 1030.627808 -312.626434
1000.000000 1050.455566 -435.100128
1000.000000 1075.950195 -575.092346
1000.000000 1014.400757 -677.783997
1000.000000 871.964355 -715.585205
1000.000000 647.717834 -647.701782
1000.000000 554.468567 -675.603882
1000.000000 430.020050 -643.551697
1000.000000 354.028168 -662.317932
1000.000000 265.974365 -642.092407
1000.000000 197.693680 -651.673401
1000.000000 126.428528 -635.546875
1000.000000 61.760933 -626.965393
1000.000000 0.010393 -626.000000
1000.000000 -61.249966 -621.991516
1000.000000 -122.700882 -616.916138
1000.000000 -183.739212 -605.746582
1000.000000 -250.263596 -604.221924
1000.000000 -315.353058 -590.011414
1000.000000 -392.221008 -587.025269
1000.000000 -452.945557 -551.938721
1000.000000 -489.307709 -489.328064
1000.000000 -520.999878 -427.592255
1000.000000 -695.929993 -465.027374
1000.000000 -1033.599365 -552.500061
1000.000000 -1126.198364 -466.517059
1000.000000 -1084.205811 -328.917725
1000.000000 -1037.665894 -206.430374
1000.000000 -276.660675 -27.255568
1000.000000 -251.000000 -0.006221
1000.000000 -232.873810 22.930082
1000.000000 -274.621307 54.618114
1000.000000 -322.491455 97.817444
1000.000000 -1954.950928 809.705322
1000.000000 -1950.838745 1042.675537
1000.000000 -1997.227173 1334.424072
1000.000000 -1992.094604 1634.774658
1000.000000 -1828.631592 1828.524658
1000.000000 -1543.534180 1880.688965
1000.000000 -1288.425415 1928.139282
1000.000000 -999.890076 1870.524170
1000.000000 -786.856873 1899.471558
1000.000000 -562.920715 1855.489502
1000.000000 -363.122101 1825.229614
1000.000000 -181.098328 1838.100220
1200.000000 0.000000 1819.000000
1200.000000 177.508102 1802.279663
1200.000000 360.720123 1813.472412
1200.000000 552.989502 1822.972168
1200.000000 743.932861 1796.023315
1200.000000 971.543945 1817.642212
1200.000000 1173.914429 1756.898926
1200.000000 1415.325073 1724.591553
1200.000000 1592.397827 1592.411133
1200.000000 1515.094604 1243.417969
1200.000000 1353.627808 904.475403
1200.000000 1338.752319 715.587952
1200.000000 1177.943359 487.928680
1200.000000 1165.550903 353.574615
1200.000000 1110.247314 220.850357
1200.000000 1111.620483 109.493889
1200.000000 1123.000000 0.009322
1200.000000 1060.867798 -104.476875
1200.000000 1020.999390 -203.079422
1200.000000 1022.015320 -310.013977
1200.000000 1042.140625 -431.656067
1200.000000 1073.304443 -573.678162
1200.000000 983.636108 -657.228271
1200.000000 873.510376 -716.853943
1200.000000 651.253418 -651.237305
1200.000000 551.930969 -672.511902
1200.000000 432.797943 -647.708984
1200.000000 353.085358 -660.554077
1200.000000 267.122467 -644.864014
1200.000000 191.887695 -632.534668
1200.000000 126.623627 -636.527649
1200.000000 61.760933 -626.965393
1200.000000 0.010376 -625.000000
1200.000000 -61.053967 -620.001160
1200.000000 -121.920593 -612.992981
1200.000000 -182.868408 -602.875732
1200.000000 -251.028915 -606.069702
1200.000000 -313.467529 -586.483704
1200.000000 -388.887695 -582.036377
1200.000000 -452.311188 -551.165649
1200.000000 -490.014801 -490.035187
1200.000000 -542.643799 -445.355743
1200.000000 -674.312073 -450.582092
1200.000000 -1020.370728 -545.428833
1200.000000 -1125.274536 -466.134338
1200.000000 -1106.215210 -335.594788
1200.000000 -1056.300781 -210.137527
1200.000000 -275.665497 -27.157526
1200.000000 -231.000000 -0.005725
1200.000000 -228.893066 22.538115
1200.000000 -273.640503 54.423050
1200.000000 -304.309448 92.302513
1200.000000 -1950.331543 807.792053
1200.000000 -1944.665161 1039.375977
1200.000000 -1982.260498 1324.424194
1200.000000 -1982.818237 1627.162109
1200.000000 -1825.095947 1824.989258
1200.000000 -1547.340698 1885.326904
1200.000000 -1297.314941 1941.442505
1200.000000 -1002.718628 1875.815674
1200.000000 -763.894165 1844.039551
1200.000000 -566.985107 1868.886475
1200.000000 -365.073334 1835.037476
1200.000000 -180.902222 1836.109863
1400.000000 0.000000 1822.000000
1400.000000 178.390259 1811.236328
1400.000000 361.110291 1815.433960
1400.000000 541.958740 1786.608398
1400.000000 742.019470 1791.403931
1400.000000 971.072571 1816.760376
1400.000000 1178.914551 1764.382202
1400.000000 1441.335083 1756.285034
1400.000000 1609.368408 1609.381714
1400.000000 1651.143921 1355.071777
1400.000000 1567.314819 1047.258057
1400.000000 1608.619385 859.836914
1400.000000 1516.082397 627.992920
1400.000000 1498.565552 454.595917
1400.000000 1284.826904 255.577713
1400.000000 1230.047363 121.158859
1400.000000 1132.000000 0.009397
1400.000000 1019.070068 -100.360527
1400.000000 995.498901 -198.007309
1400.000000 1021.058411 -309.723694
1400.000000 1058.770508 -438.544189
1400.000000 1082.123657 -578.392090
1400.000000 1011.074829 -675.561768
1400.000000 854.184937 -700.994385
1400.000000 647.717834 -647.701782
1400.000000 555.102966 -676.376892
1400.000000 433.353546 -648.540466
1400.000000 354.971008 -664.081787
1400.000000 266.739777 -643.940125
1400.000000 191.887695 -632.534668
1400.000000 126.623627 -636.527649
1400.000000 61.760933 -626.965393
1400.000000 0.010393 -626.000000
1400.000000 -61.053967 -620.001160
1400.000000 -122.115669 -613.973755
1400.000000 -184.029480 -606.703491
1400.000000 -251.411591 -606.993591
1400.000000 -314.881683 -589.129456
1400.000000 -392.221008 -587.025269
1400.000000 -454.214325 -553.484741
1400.000000 -492.843170 -492.863678
1400.000000 -527.956848 -433.301971
1400.000000 -696.761414 -465.582977
1400.000000 -1028.307861 -549.671570
1400.000000 -1134.513184 -469.961395
1400.000000 -1130.138550 -342.852448
1400.000000 -1072.973999 -213.454468
1400.000000 -235.858215 -23.235861
1400.000000 -220.000000 -0.005452
1400.000000 -227.897873 22.440123
1400.000000 -274.621307 54.618114
1400.000000 -317.706726 96.366150
1400.000000 -1951.255371 808.174683
1400.000000 -1957.894165 1046.446533
1400.000000 -2004.710571 1339.423950
1400.000000 -2002.916992 1643.655762
1400.000000 -1838.531372 1838.423828
1400.000000 -1553.050415 1892.283936
1400.000000 -1306.760010 1955.577148
1400.000000 -1004.132874 1878.461426
1400.000000 -861.868530 2080.549561
1400.000000 -564.952942 1862.187988
1400.000000 -365.658691 1837.979736
1400.000000 -181.392471 1841.085815
1600.000000 0.000000 1819.000000
1600.000000 180.056534 1828.154419
1600.000000 360.329956 1811.510742
1600.000000 552.699219 1822.015259
1600.000000 740.488708 1787.708374
1600.000000 963.530212 1802.649536
1600.000000 1159.469727 1735.280640
1600.000000 1433.088013 1746.235840
1600.000000 1603.004395 1603.017700
1600.000000 1690.567383 1387.426025
1600.000000 1620.528687 1082.814819
1600.000000 1668.589844 891.892212
1600.000000 1627.871582 674.298279
1600.000000 1646.890991 499.591064
1600.000000 1399.578613 278.404114
1600.000000 1041.957642 102.632141
1600.000000 1010.000000 0.008384
1600.000000 914.575562 -90.069649
1600.000000 862.111877 -171.476273
1600.000000 1027.756958 -311.755615
1600.000000 1408.922363 -583.577576
1600.000000 1341.410034 -716.979919
1600.000000 1008.580383 -673.895081
1600.000000 860.369080 -706.069458
1600.000000 657.617432 -657.601135
1600.000000 562.081421 -684.879944
1600.000000 437.798187 -655.192139
1600.000000 341.300140 -638.506226
1600.000000 269.801331 -651.331116
1600.000000 191.887695 -632.534668
1600.000000 127.208946 -639.470032
1600.000000 61.760933 -626.965393
1600.000000 0.010376 -625.000000
1600.000000 -60.857967 -618.010742
1600.000000 -122.505814 -615.935303
1600.000000 -183.158676 -603.832703
1600.000000 -249.498260 -602.374146
1600.000000 -312.996155 -585.601746
1600.000000 -386.665497 -578.710449
1600.000000 -455.483063 -555.030762
1600.000000 -503.449554 -503.470520
1600.000000 -536.459778 -440.280457
1600.000000 -651.031250 -435.025604
1600.000000 -981.566650 -524.686523
1600.000000 -1108.644897 -459.245667
1600.000000 -1217.219482 -369.270386
1600.000000 -265.791534 -52.875832
1600.000000 -218.940109 -21.569153
1600.000000 -213.000000 -0.005279
1600.000000 -222.921936 21.950165
1600.000000 -276.582886 55.008244
1600.000000 -301.438599 91.431732
1600.000000 -1905.984741 789.424438
1600.000000 -2054.906982 1098.297485
1600.000000 -1990.575317 1329.979614
1600.000000 -2006.782227 1646.827637
1600.000000 -1847.016846 1846.908936
1600.000000 -1579.695923 1924.749512
1600.000000 -1244.533447 1862.454468
1600.000000 -1018.747009 1905.800537
1600.000000 -766.955811 1851.430420
1600.000000 -570.759216 1881.326660
1600.000000 -366.439178 1841.902954
1600.000000 -181.490524 1842.080933
1800.000000 0.000000 1639.000000
1800.000000 160.943298 1634.093384
1800.000000 322.287537 1620.257568
1800.000000 472.000488 1555.985718
1800.000000 632.189880 1526.250244
1800.000000 865.008789 1618.327759
1800.000000 1076.134521 1610.559937
1800.000000 1351.251709 1646.517212
1800.000000 1506.131226 1506.143677
1800.000000 1582.346313 1298.610474
1800.000000 1561.494507 1043.369019
1800.000000 1621.848267 866.907959
1800.000000 1618.632812 670.471375
1800.000000 1644.977051 499.010468
1800.000000 1386.828369 275.867859
1800.000000 1048.923950 103.318314
1800.000000 1001.000000 0.008309
1800.000000 946.421509 -93.205917
1800.000000 897.420227 -178.499191
1800.000000 1135.891602 -344.556732
1800.000000 1329.468384 -550.667603
1800.000000 1446.359253 -773.074951
1800.000000 1037.682007 -693.339722
1800.000000 863.461121 -708.606995
1800.000000 658.324585 -658.308228
1800.000000 558.909363 -681.014893
1800.000000 436.687042 -653.529236
1800.000000 340.357330 -636.742432
1800.000000 268.653259 -648.559509
1800.000000 192.177994 -633.491638
1800.000000 126.818733 -637.508423
1800.000000 61.858967 -627.960571
1800.000000 0.010376 -625.000000
1800.000000 -61.151966 -620.996338
1800.000000 -122.700882 -616.916138
1800.000000 -182.868408 -602.875732
1800.000000 -250.263596 -604.221924
1800.000000 -312.996155 -585.601746
1800.000000 -389.998810 -583.699341
1800.000000 -450.408051 -548.846619
1800.000000 -490.014801 -490.035187
1800.000000 -543.416748 -445.990143
1800.000000 -643.548157 -430.025330
1800.000000 -930.415833 -497.344360
1800.000000 -1080.004883 -447.381805
1800.000000 -1340.663940 -406.719971
1800.000000 -211.848618 -42.144573
1800.000000 -198.041275 -19.510281
1800.000000 -207.000000 -0.005130
1800.000000 -224.912308 22.146147
1800.000000 -280.506042 55.788502
1800.000000 -304.309448 92.302513
1800.000000 -1907.832520 790.189758
1800.000000 -2028.448975 1084.156372
1800.000000 -1953.158447 1304.979980
1800.000000 -1962.719482 1610.668457
1800.000000 -1797.517944 1797.412842
1800.000000 -1499.125122 1826.579590
1800.000000 -1249.533691 1869.937500
1800.000000 -950.862000 1778.805908
1800.000000 -730.215454 1762.739136
1800.000000 -541.727722 1785.633545
1800.000000 -351.609894 1767.363770
1800.000000 -174.332870 1769.432739
2000.000000 0.000000 519.000000
2000.000000 49.302361 500.577942
2000.000000 97.934830 492.354309
2000.000000 146.593018 483.255096
2000.000000 193.254166 466.559570
2000.000000 246.067902 460.363525
2000.000000 291.117462 435.690979
2000.000000 335.592560 408.923767
2000.000000 374.765045 374.768158
2000.000000 413.558990 339.402344
2000.000000 451.486420 301.676971
2000.000000 527.387268 281.898285
2000.000000 658.724426 272.857361
2000.000000 738.756409 224.104752
2000.000000 745.395752 148.274094
2000.000000 759.325378 74.793053
2000.000000 811.000000 0.006732
2000.000000 819.037720 -80.660851
2000.000000 791.495178 -157.430435
2000.000000 1102.398560 -334.397095
2000.000000 1198.276978 -496.327942
2000.000000 1300.841431 -695.296082
2000.000000 1119.998169 -748.340210
2000.000000 783.840271 -643.265442
2000.000000 633.575500 -633.559814
2000.000000 546.221313 -665.554871
2000.000000 430.020050 -643.551697
2000.000000 353.085358 -660.554077
2000.000000 265.591675 -641.168518
2000.000000 198.274277 -653.587280
2000.000000 126.623627 -636.527649
2000.000000 61.858967 -627.960571
2000.000000 0.010393 -626.000000
2000.000000 -61.347965 -622.986694
2000.000000 -122.700882 -616.916138
2000.000000 -182.868408 -602.875732
2000.000000 -244.140930 -589.439758
2000.000000 -312.996155 -585.601746
2000.000000 -393.887695 -589.519714
2000.000000 -455.483063 -555.030762
2000.000000 -489.307709 -489.328064
2000.000000 -516.361877 -423.785797
2000.000000 -715.053528 -477.805908
2000.000000 -955.109314 -510.544037
2000.000000 -1116.959717 -462.690002
2000.000000 -1328.223877 -402.945984
2000.000000 -792.470764 -157.651932
2000.000000 -201.026825 -19.804405
2000.000000 -204.000000 -0.005056
2000.000000 -236.854553 23.322050
2000.000000 -293.256317 58.324341
2000.000000 -333.017883 101.010300
2000.000000 -1726.750122 715.188721
2000.000000 -1770.042114 946.044250
2000.000000 -888.857544 593.879822
2000.000000 -715.051453 586.793396
2000.000000 -550.852295 550.820068
2000.000000 -442.822388 539.548279
2000.000000 -378.360382 566.219421
2000.000000 -301.239868 563.538391
2000.000000 -239.960739 579.264893
2000.000000 -168.963318 556.933899
2000.000000 -107.512238 540.409241
2000.000000 -52.554794 533.417297
